ncols        170
nrows        31
xllcorner    4439837.5
yllcorner    5734737.5
cellsize     200.000000000000
NODATA_value  -9999
146.8000030517578125 150.9000091552734375 147.9000091552734375 149.5 155.8000030517578125 153.600006103515625 151.6999969482421875 141.9000091552734375 142.5 138.9000091552734375 131.5 123.90000152587890625 119 116.59999847412109375 116.8000030517578125 116 115.8000030517578125 115.70000457763671875 116.90000152587890625 116.3000030517578125 131.1999969482421875 121.90000152587890625 131 131.100006103515625 131 131.100006103515625 130.9000091552734375 131.6999969482421875 131.8000030517578125 133.600006103515625 135.9000091552734375 137.5 137.9000091552734375 137.5 137.6999969482421875 138.3000030517578125 138.600006103515625 139.6999969482421875 140.8000030517578125 142.1999969482421875 142.5 141.8000030517578125 142.1999969482421875 144.9000091552734375 144.8000030517578125 143.9000091552734375 143.3000030517578125 142.6999969482421875 141.5 140.5 140.100006103515625 140.4000091552734375 140.600006103515625 140.5 140.3000030517578125 139.6999969482421875 137.9000091552734375 135.5 130 118.5 117.90000152587890625 118.20000457763671875 118.3000030517578125 123.20000457763671875 119.5 120 123.8000030517578125 130.5 130.100006103515625 130.6999969482421875 130.600006103515625 130.4000091552734375 129.8000030517578125 129.4000091552734375 129.100006103515625 128 131.4000091552734375 143.9000091552734375 142.5 132.3000030517578125 132.8000030517578125 129.3000030517578125 130 131.5 130.8000030517578125 123.8000030517578125 114 107.09999847412109375 105.20000457763671875 105 105 105 105.09999847412109375 105.70000457763671875 106.40000152587890625 107 109.59999847412109375 108.8000030517578125 108.59999847412109375 108.8000030517578125 109 111.59999847412109375 122.70000457763671875 126.3000030517578125 127.8000030517578125 128.9000091552734375 129.3000030517578125 130.8000030517578125 132.4000091552734375 133.5 134.4000091552734375 135.1999969482421875 135.6999969482421875 136.6999969482421875 136.8000030517578125 137.8000030517578125 139.6999969482421875 142 142.600006103515625 145.4000091552734375 151.5 154.6999969482421875 156.1999969482421875 157.3000030517578125 158.5 159.4000091552734375 159.6999969482421875 159.1999969482421875 158.8000030517578125 157.3000030517578125 156.4000091552734375 153.4000091552734375 151.1999969482421875 151.4000091552734375 150.1999969482421875 147.100006103515625 143.9000091552734375 141.1999969482421875 133.3000030517578125 125.59999847412109375 118.70000457763671875 113.09999847412109375 108.70000457763671875 105 100.70000457763671875 98.20000457763671875 98.59999847412109375 96.90000152587890625 94.90000152587890625 92.20000457763671875 90.09999847412109375 83.59999847412109375 79.20000457763671875 77 77.20000457763671875 76.40000152587890625 76.09999847412109375 75.70000457763671875 76.09999847412109375 76.09999847412109375 75.70000457763671875 75.90000152587890625 75.8000030517578125 74.90000152587890625 72.3000030517578125 71.3000030517578125 74.59999847412109375 74.59999847412109375 74.59999847412109375 74.20000457763671875
142.9000091552734375 146.6999969482421875 132.6999969482421875 131.600006103515625 133.8000030517578125 136.100006103515625 144.600006103515625 131.1999969482421875 136.1999969482421875 118.3000030517578125 118.3000030517578125 118.20000457763671875 117 117.09999847412109375 116.59999847412109375 117 116.3000030517578125 117.59999847412109375 116.90000152587890625 122 132.100006103515625 127.40000152587890625 121.59999847412109375 129.9000091552734375 130.9000091552734375 131.3000030517578125 131.4000091552734375 131.100006103515625 131.6999969482421875 133 134.8000030517578125 135.600006103515625 135.9000091552734375 136.5 137.9000091552734375 138.600006103515625 139.4000091552734375 140.6999969482421875 142 142.3000030517578125 142.4000091552734375 141.6999969482421875 139.4000091552734375 142.3000030517578125 144.1999969482421875 143.5 142.5 141.8000030517578125 142.100006103515625 141.100006103515625 140.8000030517578125 140.6999969482421875 139.600006103515625 139.3000030517578125 139.4000091552734375 138.5 137.8000030517578125 135.9000091552734375 133.4000091552734375 128.4000091552734375 118.59999847412109375 120.09999847412109375 119.20000457763671875 118.8000030517578125 119.90000152587890625 121.40000152587890625 121 128.6999969482421875 129.600006103515625 131.3000030517578125 131 131 130.4000091552734375 130.100006103515625 129.9000091552734375 129.600006103515625 129.4000091552734375 128.6999969482421875 128.100006103515625 123.70000457763671875 131.1999969482421875 126.20000457763671875 127.09999847412109375 131.6999969482421875 129.8000030517578125 125.8000030517578125 122 110.5 108.09999847412109375 106 105 104.90000152587890625 105.8000030517578125 105.70000457763671875 106 106.70000457763671875 107.8000030517578125 108.70000457763671875 108.59999847412109375 108.59999847412109375 109.20000457763671875 108.70000457763671875 112.90000152587890625 126.3000030517578125 126.59999847412109375 128.6999969482421875 129.4000091552734375 129.5 131 132.5 133.5 134.100006103515625 134.1999969482421875 134.5 134 136.6999969482421875 138.6999969482421875 140.6999969482421875 143 145.5 149.5 151.1999969482421875 151.3000030517578125 153.3000030517578125 157.5 159 159 159.3000030517578125 158.5 157.6999969482421875 156.1999969482421875 153.3000030517578125 152.3000030517578125 152.4000091552734375 150.5 146.3000030517578125 141.600006103515625 140 134.9000091552734375 128.100006103515625 117.3000030517578125 110.8000030517578125 105.8000030517578125 103.5 100.09999847412109375 96.70000457763671875 100.09999847412109375 100.70000457763671875 98.8000030517578125 95.5 91.70000457763671875 86.59999847412109375 80.5 77.59999847412109375 77.20000457763671875 76.70000457763671875 76.59999847412109375 76.3000030517578125 76.40000152587890625 77.09999847412109375 77.59999847412109375 76 76 75.8000030517578125 76.8000030517578125 74.09999847412109375 75.70000457763671875 74.20000457763671875 75.40000152587890625 75.59999847412109375
134.4000091552734375 140 132.3000030517578125 129.3000030517578125 127.8000030517578125 125 123.09999847412109375 120 119.90000152587890625 118.59999847412109375 119.90000152587890625 119 118.59999847412109375 116.40000152587890625 117.20000457763671875 117.90000152587890625 117.20000457763671875 118 124.09999847412109375 132.8000030517578125 133.100006103515625 133 130.3000030517578125 124.20000457763671875 124.5 128.6999969482421875 124.8000030517578125 126.5 129 131.100006103515625 132.8000030517578125 133.600006103515625 134.6999969482421875 136.3000030517578125 137.6999969482421875 139.100006103515625 138.9000091552734375 137.9000091552734375 137.4000091552734375 137.100006103515625 136.5 134.600006103515625 135 141.6999969482421875 142.6999969482421875 142.600006103515625 142.1999969482421875 141.9000091552734375 141.6999969482421875 142.4000091552734375 141.8000030517578125 140.8000030517578125 140 138.1999969482421875 135.6999969482421875 137.3000030517578125 135.6999969482421875 134.4000091552734375 132.4000091552734375 129.600006103515625 121.3000030517578125 119.3000030517578125 119.59999847412109375 119.59999847412109375 120.40000152587890625 120.90000152587890625 121.09999847412109375 122.8000030517578125 131 131 131.4000091552734375 130.9000091552734375 130.9000091552734375 131.100006103515625 130.5 130.100006103515625 129.9000091552734375 129.5 129.3000030517578125 129.1999969482421875 129.100006103515625 128.100006103515625 111.70000457763671875 111.70000457763671875 126.5 124.59999847412109375 118 118.40000152587890625 114.90000152587890625 106.5 105.3000030517578125 105.5 106 105.40000152587890625 106.40000152587890625 106.70000457763671875 106.59999847412109375 108 108.09999847412109375 108.5 108.5 108.40000152587890625 108.90000152587890625 113.09999847412109375 121.8000030517578125 124 124.90000152587890625 129.3000030517578125 130 130.600006103515625 131.5 131.600006103515625 131.8000030517578125 133.9000091552734375 133.6999969482421875 135.1999969482421875 137.8000030517578125 140.1999969482421875 141.6999969482421875 143.6999969482421875 146.8000030517578125 147.9000091552734375 149.6999969482421875 151.600006103515625 153.100006103515625 154.5 155.4000091552734375 155.1999969482421875 153.6999969482421875 153.3000030517578125 152.4000091552734375 151.4000091552734375 152.3000030517578125 152.3000030517578125 150.5 147 140.9000091552734375 134.6999969482421875 131.4000091552734375 132.600006103515625 129.1999969482421875 119.09999847412109375 110.09999847412109375 107.90000152587890625 102.90000152587890625 96.5 95.40000152587890625 99.90000152587890625 99 97 94.40000152587890625 89.59999847412109375 84.09999847412109375 79.70000457763671875 78.09999847412109375 77.59999847412109375 77.59999847412109375 77.09999847412109375 76.8000030517578125 76.5 76.70000457763671875 76.5 75.8000030517578125 76 76.8000030517578125 76.20000457763671875 74.70000457763671875 75 76.20000457763671875 74.59999847412109375
133.600006103515625 132.9000091552734375 131.1999969482421875 128.3000030517578125 126.40000152587890625 122.70000457763671875 120.09999847412109375 120.90000152587890625 119.40000152587890625 119.8000030517578125 119.5 118.40000152587890625 119.09999847412109375 119.09999847412109375 118.8000030517578125 121.09999847412109375 118.59999847412109375 122.90000152587890625 130.9000091552734375 133.100006103515625 133.5 133.6999969482421875 133.3000030517578125 132.3000030517578125 128.9000091552734375 123.8000030517578125 123.59999847412109375 126.90000152587890625 128.8000030517578125 130.3000030517578125 131 130.6999969482421875 130.6999969482421875 130.9000091552734375 132.600006103515625 132.5 132 131 129.600006103515625 129 129.8000030517578125 132 136.8000030517578125 139.5 139.3000030517578125 139.6999969482421875 140.100006103515625 140.8000030517578125 141.4000091552734375 141.3000030517578125 141.5 141 140.600006103515625 139.3000030517578125 137.6999969482421875 133.600006103515625 131.600006103515625 131.600006103515625 131.600006103515625 128 126.40000152587890625 119.8000030517578125 120.3000030517578125 120.20000457763671875 121.09999847412109375 121.40000152587890625 121.90000152587890625 121.8000030517578125 125.5 134.9000091552734375 131.600006103515625 131.6999969482421875 131.600006103515625 131.3000030517578125 130.9000091552734375 130.6999969482421875 130.8000030517578125 130.4000091552734375 130.3000030517578125 130 130 129.9000091552734375 111.8000030517578125 111.70000457763671875 125.40000152587890625 126.90000152587890625 121.8000030517578125 121.59999847412109375 124.70000457763671875 117.90000152587890625 106.59999847412109375 105.70000457763671875 105.90000152587890625 105.59999847412109375 106.20000457763671875 106.20000457763671875 106.8000030517578125 106.20000457763671875 106.8000030517578125 108.09999847412109375 108.3000030517578125 108.3000030517578125 108.8000030517578125 109.09999847412109375 113.5 120.5 125.20000457763671875 127.70000457763671875 128.8000030517578125 124.8000030517578125 129.1999969482421875 130.9000091552734375 133.100006103515625 134.8000030517578125 135.600006103515625 134.9000091552734375 139.100006103515625 138.3000030517578125 140.4000091552734375 143.600006103515625 145.600006103515625 146.6999969482421875 147.100006103515625 148.600006103515625 150.3000030517578125 151.9000091552734375 152.600006103515625 153.1999969482421875 153.1999969482421875 153.1999969482421875 152.1999969482421875 151.100006103515625 151.5 152.9000091552734375 149.8000030517578125 144.1999969482421875 140.100006103515625 137.600006103515625 139.6999969482421875 138.600006103515625 133.4000091552734375 124.90000152587890625 116.5 111.59999847412109375 104.70000457763671875 96.59999847412109375 93.09999847412109375 94.40000152587890625 97.40000152587890625 97.5 95.8000030517578125 90.90000152587890625 85.09999847412109375 80.5 79.8000030517578125 78.5 77.90000152587890625 78 77.59999847412109375 77.3000030517578125 77.40000152587890625 76.8000030517578125 76.3000030517578125 76.3000030517578125 77.09999847412109375 76.59999847412109375 76 75.90000152587890625 75.90000152587890625 74.70000457763671875
156.1999969482421875 148.4000091552734375 145.3000030517578125 139 130.6999969482421875 122.09999847412109375 121.40000152587890625 120.8000030517578125 120.5 119.90000152587890625 119.90000152587890625 119.8000030517578125 119.40000152587890625 119.59999847412109375 121.09999847412109375 122.40000152587890625 134.5 134.1999969482421875 134 133.600006103515625 134.1999969482421875 134 133.600006103515625 132.6999969482421875 131.5 129.6999969482421875 124.59999847412109375 123.59999847412109375 123.09999847412109375 123.40000152587890625 123.70000457763671875 124.20000457763671875 124.70000457763671875 125.40000152587890625 126 126.5 127 127.59999847412109375 128.5 128.1999969482421875 131.6999969482421875 135 135.8000030517578125 135.8000030517578125 136.5 137 138 138.600006103515625 139.5 139.5 139.3000030517578125 138.8000030517578125 139.1999969482421875 137.600006103515625 135.8000030517578125 133.9000091552734375 132 128 125.70000457763671875 124.59999847412109375 122.20000457763671875 120.59999847412109375 120.59999847412109375 120.8000030517578125 121 121.59999847412109375 122.20000457763671875 122.8000030517578125 123.09999847412109375 131.9000091552734375 132.9000091552734375 133.4000091552734375 132.8000030517578125 132.4000091552734375 132.1999969482421875 131.5 131.8000030517578125 131.5 131.1999969482421875 131.3000030517578125 131.100006103515625 131.3000030517578125 130.6999969482421875 129.3000030517578125 124 125.20000457763671875 126.70000457763671875 124.90000152587890625 124.90000152587890625 123.09999847412109375 116.8000030517578125 109.3000030517578125 106.09999847412109375 105.59999847412109375 106.20000457763671875 106 106 106.09999847412109375 106.20000457763671875 106.59999847412109375 108.20000457763671875 108.3000030517578125 108.5 108.8000030517578125 109.8000030517578125 113.8000030517578125 117 122.20000457763671875 124.8000030517578125 124.09999847412109375 129.9000091552734375 131.5 132 129.100006103515625 130 131.5 133.1999969482421875 138.100006103515625 143 142.6999969482421875 143.600006103515625 147.100006103515625 148.1999969482421875 149.600006103515625 149.8000030517578125 148.8000030517578125 149.8000030517578125 151.8000030517578125 151.9000091552734375 151.6999969482421875 151.4000091552734375 151.600006103515625 153.4000091552734375 154.8000030517578125 152.100006103515625 148.3000030517578125 145.1999969482421875 143.3000030517578125 142.6999969482421875 138.5 137.1999969482421875 127 122 114.70000457763671875 105 98.59999847412109375 95.20000457763671875 93.09999847412109375 89.59999847412109375 87.8000030517578125 91.20000457763671875 85.8000030517578125 87.90000152587890625 82.70000457763671875 79 78.09999847412109375 77.70000457763671875 78 80.59999847412109375 77.90000152587890625 77.59999847412109375 77.8000030517578125 76.70000457763671875 76.90000152587890625 78.20000457763671875 76.09999847412109375 75.3000030517578125 75.59999847412109375 75.59999847412109375 74.70000457763671875
145.1999969482421875 161.8000030517578125 137.9000091552734375 131.6999969482421875 130.6999969482421875 121.59999847412109375 121.90000152587890625 121.59999847412109375 121.3000030517578125 120.20000457763671875 120 120.40000152587890625 120.40000152587890625 120.5 123.09999847412109375 122.70000457763671875 128.8000030517578125 134.3000030517578125 135 135.1999969482421875 133.6999969482421875 133.5 135.1999969482421875 133.600006103515625 132.5 130.9000091552734375 127.3000030517578125 124.90000152587890625 123.5 123.40000152587890625 124.20000457763671875 124.70000457763671875 125.09999847412109375 126.40000152587890625 127.5 128.600006103515625 129.8000030517578125 130 130.3000030517578125 130.100006103515625 129.8000030517578125 130.6999969482421875 131.6999969482421875 133.9000091552734375 135.100006103515625 136.4000091552734375 137.4000091552734375 138.3000030517578125 139.4000091552734375 140.1999969482421875 140.100006103515625 139.5 139.1999969482421875 139.100006103515625 137.5 136.5 133.8000030517578125 133.5 132.6999969482421875 131.4000091552734375 129.6999969482421875 121 121.3000030517578125 121 121.20000457763671875 121.59999847412109375 122.70000457763671875 122.8000030517578125 123.40000152587890625 125.20000457763671875 132.600006103515625 135.5 135.8000030517578125 134.100006103515625 132.8000030517578125 132.5 132.1999969482421875 132.4000091552734375 132.4000091552734375 131.8000030517578125 131.6999969482421875 131.6999969482421875 131.100006103515625 130 128.8000030517578125 128.100006103515625 128.3000030517578125 127.40000152587890625 124.8000030517578125 125.8000030517578125 123 118.90000152587890625 109.3000030517578125 106.5 106.5 105.90000152587890625 106 106.3000030517578125 106.40000152587890625 106.40000152587890625 106.8000030517578125 109.59999847412109375 108.59999847412109375 108.8000030517578125 109.09999847412109375 111.59999847412109375 113.5 114.20000457763671875 116.20000457763671875 119.09999847412109375 127 130.600006103515625 130.5 133.4000091552734375 135.9000091552734375 137 140.8000030517578125 143.4000091552734375 145.8000030517578125 146.6999969482421875 147.9000091552734375 147.9000091552734375 151.1999969482421875 153.9000091552734375 154 153.9000091552734375 154.8000030517578125 153.3000030517578125 153.1999969482421875 152.3000030517578125 150.9000091552734375 151.1999969482421875 153.600006103515625 157.100006103515625 154.5 150.1999969482421875 147.9000091552734375 145.4000091552734375 143.1999969482421875 142.1999969482421875 138.4000091552734375 127.3000030517578125 124.59999847412109375 113.90000152587890625 105.8000030517578125 98.90000152587890625 96.3000030517578125 93.3000030517578125 91.09999847412109375 89.59999847412109375 94.59999847412109375 95.3000030517578125 90.90000152587890625 83.8000030517578125 79.70000457763671875 78.5 78.3000030517578125 78.40000152587890625 78.09999847412109375 79.8000030517578125 77.5 77.59999847412109375 76.90000152587890625 77.09999847412109375 77.70000457763671875 77.5 75.40000152587890625 74.5 75.70000457763671875 75.09999847412109375
129.1999969482421875 130.6999969482421875 152.3000030517578125 127.8000030517578125 123.70000457763671875 122.5 122.09999847412109375 122 121.5 120.3000030517578125 120.8000030517578125 121.59999847412109375 122.5 130.100006103515625 124.8000030517578125 123.3000030517578125 135.8000030517578125 135.3000030517578125 133.6999969482421875 134.4000091552734375 134.5 133.5 134.100006103515625 133.5 131.6999969482421875 128.4000091552734375 127.5 127.8000030517578125 125.70000457763671875 125.5 125.59999847412109375 125.20000457763671875 127.59999847412109375 129.8000030517578125 131.600006103515625 132.100006103515625 132.3000030517578125 132.6999969482421875 133.1999969482421875 132.6999969482421875 130.8000030517578125 133.8000030517578125 134.6999969482421875 136 137.1999969482421875 138.600006103515625 138.4000091552734375 139.8000030517578125 140.5 141.4000091552734375 141.6999969482421875 141.3000030517578125 140.100006103515625 139.4000091552734375 138.600006103515625 137.1999969482421875 136.100006103515625 135.1999969482421875 134.100006103515625 132.5 131.1999969482421875 126.20000457763671875 121.8000030517578125 121.90000152587890625 121.20000457763671875 122.20000457763671875 123 123.5 123.40000152587890625 125.3000030517578125 127.90000152587890625 134.600006103515625 135.100006103515625 134.9000091552734375 135.4000091552734375 134.3000030517578125 133.1999969482421875 133 133.4000091552734375 132.4000091552734375 132.5 132.4000091552734375 132 131.5 130.9000091552734375 130.3000030517578125 130.3000030517578125 128.600006103515625 127.5 127.3000030517578125 125.90000152587890625 123 116.5 109.70000457763671875 107 106.09999847412109375 106.8000030517578125 106.20000457763671875 106.5 106.09999847412109375 106.40000152587890625 107.3000030517578125 108.8000030517578125 108.70000457763671875 109.20000457763671875 110.3000030517578125 112.40000152587890625 114.70000457763671875 115.90000152587890625 121.3000030517578125 124.70000457763671875 127.70000457763671875 135.100006103515625 137.100006103515625 138.4000091552734375 139.6999969482421875 140.600006103515625 143.100006103515625 146.3000030517578125 149.5 150.6999969482421875 151.600006103515625 150.6999969482421875 153.100006103515625 153.8000030517578125 154.100006103515625 154.1999969482421875 154.3000030517578125 154.6999969482421875 154.6999969482421875 154 151.600006103515625 153.100006103515625 154.5 157.6999969482421875 154.4000091552734375 151 148.600006103515625 145.3000030517578125 140.9000091552734375 136.8000030517578125 132.1999969482421875 127.3000030517578125 112.09999847412109375 111.70000457763671875 102.90000152587890625 95.8000030517578125 93.20000457763671875 92 89.59999847412109375 90 95.59999847412109375 91.59999847412109375 86.90000152587890625 81.59999847412109375 79.09999847412109375 82.5 78.70000457763671875 78.59999847412109375 78.3000030517578125 77.59999847412109375 78.09999847412109375 77.40000152587890625 77.3000030517578125 78 78.40000152587890625 76 75.70000457763671875 76.8000030517578125 77.40000152587890625
130.8000030517578125 126 124.5 134.6999969482421875 126.40000152587890625 122.3000030517578125 122.40000152587890625 122 121.5 120.8000030517578125 121.5 124.70000457763671875 135.8000030517578125 132.1999969482421875 126.3000030517578125 130.6999969482421875 134.8000030517578125 135.9000091552734375 134.600006103515625 134.8000030517578125 134.1999969482421875 133.5 133.100006103515625 132.3000030517578125 133 132.3000030517578125 129.600006103515625 128.4000091552734375 127.90000152587890625 126.90000152587890625 126.40000152587890625 129.6999969482421875 132.1999969482421875 133.6999969482421875 134.3000030517578125 134.1999969482421875 134.600006103515625 134.600006103515625 134.1999969482421875 134.1999969482421875 132.1999969482421875 135.100006103515625 136.600006103515625 137.600006103515625 139.100006103515625 140.5 141.6999969482421875 142.3000030517578125 142.5 142 141.4000091552734375 141.1999969482421875 140.8000030517578125 139.600006103515625 138.4000091552734375 137 136 134.8000030517578125 133.8000030517578125 131.8000030517578125 128.8000030517578125 123.90000152587890625 124.40000152587890625 121.90000152587890625 122.3000030517578125 121.20000457763671875 123.09999847412109375 123.40000152587890625 123.5 124.3000030517578125 124.70000457763671875 136.1999969482421875 136.5 136.4000091552734375 135.3000030517578125 134.5 135 133.6999969482421875 133.8000030517578125 133.3000030517578125 133.3000030517578125 133.1999969482421875 133.100006103515625 132.4000091552734375 132.100006103515625 131.6999969482421875 131 129.1999969482421875 129.100006103515625 129.100006103515625 128.6999969482421875 127.90000152587890625 122.5 116.20000457763671875 111.59999847412109375 107 106.09999847412109375 106.3000030517578125 106.09999847412109375 106.09999847412109375 106.3000030517578125 106.40000152587890625 108.3000030517578125 108.8000030517578125 109.20000457763671875 107.8000030517578125 111.09999847412109375 121 120.8000030517578125 120.8000030517578125 122 127 134.1999969482421875 137 136.5 137.9000091552734375 141.5 143.600006103515625 145.9000091552734375 150.1999969482421875 152.1999969482421875 153.8000030517578125 155.100006103515625 156.4000091552734375 158 158.4000091552734375 157.6999969482421875 157 157 157.100006103515625 156.8000030517578125 154.9000091552734375 154.8000030517578125 154.600006103515625 153.5 156.3000030517578125 153.4000091552734375 150.4000091552734375 146.6999969482421875 142.3000030517578125 139.100006103515625 135.9000091552734375 126.59999847412109375 129.4000091552734375 117.20000457763671875 107.20000457763671875 97.70000457763671875 97.8000030517578125 95.70000457763671875 92.90000152587890625 91.59999847412109375 95 90.09999847412109375 87 85 79.5 79.70000457763671875 79.5 79.09999847412109375 78.20000457763671875 78.59999847412109375 77.90000152587890625 77.70000457763671875 78.3000030517578125 78.70000457763671875 77.59999847412109375 76.8000030517578125 76.70000457763671875 76.70000457763671875 76.90000152587890625
128.5 126.09999847412109375 123.90000152587890625 124 123 122.3000030517578125 122 122.09999847412109375 121.8000030517578125 121.8000030517578125 122.8000030517578125 138.3000030517578125 138.1999969482421875 134.5 125.59999847412109375 124.5 128.1999969482421875 135.600006103515625 134.600006103515625 135 134.600006103515625 134.6999969482421875 134.6999969482421875 135.600006103515625 133.3000030517578125 132.1999969482421875 131.600006103515625 130.1999969482421875 129.600006103515625 129.600006103515625 129.3000030517578125 129.5 131 133.5 134.100006103515625 134.1999969482421875 134.3000030517578125 134.6999969482421875 135.1999969482421875 135.3000030517578125 134.5 133.4000091552734375 136.8000030517578125 137.8000030517578125 138.9000091552734375 140.3000030517578125 141.3000030517578125 141.600006103515625 141.6999969482421875 141.3000030517578125 140.8000030517578125 140.100006103515625 139.4000091552734375 138.8000030517578125 137.600006103515625 136.1999969482421875 135.5 135 132.4000091552734375 131.6999969482421875 131.9000091552734375 133.4000091552734375 131.8000030517578125 123.70000457763671875 123.3000030517578125 123.70000457763671875 122.8000030517578125 124.20000457763671875 123.90000152587890625 124.3000030517578125 125.09999847412109375 132 137.4000091552734375 136.9000091552734375 136.100006103515625 135.8000030517578125 135.1999969482421875 134.600006103515625 134.9000091552734375 134.5 134.1999969482421875 133.9000091552734375 134.100006103515625 133.600006103515625 133.100006103515625 132.9000091552734375 131.9000091552734375 131.100006103515625 130.100006103515625 130.1999969482421875 130.100006103515625 129.6999969482421875 128 120.70000457763671875 114 115 109.20000457763671875 106.20000457763671875 106.09999847412109375 106.70000457763671875 106.70000457763671875 106.8000030517578125 107.20000457763671875 108.70000457763671875 109.09999847412109375 107.3000030517578125 107.59999847412109375 117.20000457763671875 123.09999847412109375 129.100006103515625 126.20000457763671875 127.5 128.4000091552734375 130.600006103515625 135.6999969482421875 137.4000091552734375 143 143.6999969482421875 147.1999969482421875 150.600006103515625 153.8000030517578125 153.1999969482421875 151 151 151.4000091552734375 154.4000091552734375 156.4000091552734375 155.3000030517578125 155 154.4000091552734375 153.600006103515625 153.4000091552734375 153.3000030517578125 153.100006103515625 152.9000091552734375 156.8000030517578125 153.6999969482421875 150.1999969482421875 145.100006103515625 141.1999969482421875 138.8000030517578125 137.5 132.8000030517578125 128.1999969482421875 118.20000457763671875 108.20000457763671875 101.5 104.09999847412109375 98.5 94.5 94.20000457763671875 93.59999847412109375 92.40000152587890625 87.90000152587890625 85.3000030517578125 80.20000457763671875 79.90000152587890625 80.09999847412109375 79.40000152587890625 78.8000030517578125 78.59999847412109375 78.20000457763671875 78 78.8000030517578125 79 77.09999847412109375 76.20000457763671875 78.20000457763671875 78.09999847412109375 78.40000152587890625
126.5 124.5 123.70000457763671875 122.90000152587890625 120.3000030517578125 123.40000152587890625 123.09999847412109375 123.8000030517578125 122.70000457763671875 131.1999969482421875 135.1999969482421875 136.100006103515625 136.3000030517578125 134.6999969482421875 125.59999847412109375 124.90000152587890625 131.5 136.600006103515625 138 138.1999969482421875 138.100006103515625 138.4000091552734375 138.4000091552734375 137.8000030517578125 137 135.600006103515625 134 133.8000030517578125 133 132.1999969482421875 131.9000091552734375 131.100006103515625 131.600006103515625 131.8000030517578125 132.600006103515625 133.1999969482421875 133.4000091552734375 135.3000030517578125 135.9000091552734375 136.4000091552734375 135.600006103515625 134 134.1999969482421875 136 138.4000091552734375 138.3000030517578125 138.8000030517578125 140 140.100006103515625 140 140.8000030517578125 141.3000030517578125 141 140.8000030517578125 140.8000030517578125 140.3000030517578125 139.8000030517578125 137.8000030517578125 135.600006103515625 134.4000091552734375 134.600006103515625 135 132.1999969482421875 130.3000030517578125 127.40000152587890625 124.20000457763671875 124 124.3000030517578125 124.09999847412109375 124.90000152587890625 125 127.09999847412109375 136.1999969482421875 137.8000030517578125 137.5 137.100006103515625 136.600006103515625 135.6999969482421875 135.4000091552734375 135.5 135.3000030517578125 135.100006103515625 134.6999969482421875 134.600006103515625 134.4000091552734375 134.1999969482421875 133.600006103515625 133.1999969482421875 132.600006103515625 131.9000091552734375 131.5 131.4000091552734375 130.1999969482421875 124.8000030517578125 120.8000030517578125 123.5 119.3000030517578125 108.90000152587890625 107.09999847412109375 106.59999847412109375 106.70000457763671875 106.59999847412109375 107 108.09999847412109375 109.20000457763671875 109.59999847412109375 107.3000030517578125 107.3000030517578125 118.3000030517578125 124.5 129.600006103515625 131.4000091552734375 134.4000091552734375 138.6999969482421875 142 140.4000091552734375 143.600006103515625 145.4000091552734375 149.5 152.600006103515625 154.3000030517578125 154.1999969482421875 150.9000091552734375 154.1999969482421875 156.9000091552734375 156.5 155.600006103515625 155.6999969482421875 155 155.6999969482421875 155.4000091552734375 155.3000030517578125 155.100006103515625 154.1999969482421875 154.600006103515625 156.4000091552734375 155 152.5 149.3000030517578125 147.5 146.100006103515625 140.8000030517578125 135 131.6999969482421875 125.90000152587890625 116.59999847412109375 107.59999847412109375 108.59999847412109375 101.8000030517578125 96.70000457763671875 98.70000457763671875 96.70000457763671875 95.70000457763671875 90.20000457763671875 83.8000030517578125 80.59999847412109375 80.5 79.70000457763671875 80 79.8000030517578125 79.70000457763671875 78.59999847412109375 78.40000152587890625 79.20000457763671875 79.20000457763671875 78.3000030517578125 81.3000030517578125 81.8000030517578125 80.40000152587890625 83.90000152587890625
124.70000457763671875 124.59999847412109375 123.8000030517578125 122.8000030517578125 122.90000152587890625 123.8000030517578125 124 123.20000457763671875 124.09999847412109375 132.5 134.4000091552734375 134 136.5 135.6999969482421875 125.09999847412109375 130.9000091552734375 138 143.5 143.4000091552734375 142 141.5 141.3000030517578125 141.1999969482421875 140.3000030517578125 139.8000030517578125 140 138.6999969482421875 138.100006103515625 136.9000091552734375 136.3000030517578125 135.8000030517578125 135.4000091552734375 134.6999969482421875 134.600006103515625 134.3000030517578125 134.600006103515625 134.1999969482421875 134.5 136.1999969482421875 136.8000030517578125 136.8000030517578125 136 135.4000091552734375 136.3000030517578125 136.4000091552734375 136.9000091552734375 137 137.6999969482421875 138.8000030517578125 139.600006103515625 140.9000091552734375 141.600006103515625 142.1999969482421875 142.6999969482421875 143.100006103515625 143.3000030517578125 142.5 140.600006103515625 138 137.100006103515625 135.8000030517578125 134.600006103515625 135 134.600006103515625 133.8000030517578125 127.70000457763671875 124.3000030517578125 123.8000030517578125 124.90000152587890625 125.09999847412109375 125.3000030517578125 123.90000152587890625 128.1999969482421875 116 139.4000091552734375 138.6999969482421875 137.600006103515625 137.100006103515625 136.5 136.1999969482421875 136.5 136.1999969482421875 136 135.600006103515625 135.4000091552734375 135.5 134.9000091552734375 134.6999969482421875 133.9000091552734375 133.5 132.600006103515625 131.600006103515625 128.4000091552734375 122.40000152587890625 129.8000030517578125 129.600006103515625 125.20000457763671875 115.20000457763671875 112.5 106.8000030517578125 106.70000457763671875 106.5 106.70000457763671875 107 108.59999847412109375 109.8000030517578125 107.3000030517578125 107.3000030517578125 112.20000457763671875 122.09999847412109375 128.9000091552734375 126.09999847412109375 131.6999969482421875 132.600006103515625 140.5 142.4000091552734375 143.3000030517578125 146.9000091552734375 147.6999969482421875 152 153.600006103515625 150.4000091552734375 153.600006103515625 156.6999969482421875 157.9000091552734375 158.9000091552734375 159.1999969482421875 159.8000030517578125 159 159.4000091552734375 159.9000091552734375 158.6999969482421875 157.9000091552734375 157.9000091552734375 155.1999969482421875 154.9000091552734375 156.6999969482421875 154.3000030517578125 151.6999969482421875 148.3000030517578125 146.100006103515625 142.3000030517578125 139.3000030517578125 134.8000030517578125 127.5 117 110.70000457763671875 107.3000030517578125 103.8000030517578125 98.20000457763671875 102.3000030517578125 101.3000030517578125 103 96.20000457763671875 88.40000152587890625 80 81.20000457763671875 80 79.5 79.3000030517578125 78.59999847412109375 78.3000030517578125 79.8000030517578125 79.3000030517578125 82.09999847412109375 82.90000152587890625 83.20000457763671875 84 84.40000152587890625 86.3000030517578125
125.09999847412109375 124.5 123.5 123.5 124.59999847412109375 124.20000457763671875 124.90000152587890625 132.600006103515625 134.1999969482421875 135 135.5 137.4000091552734375 137.600006103515625 130.600006103515625 126.59999847412109375 137.600006103515625 142.8000030517578125 146.8000030517578125 149 147.8000030517578125 146.8000030517578125 146.8000030517578125 146.100006103515625 145.6999969482421875 146.100006103515625 144.5 144.1999969482421875 143.3000030517578125 142.100006103515625 140.600006103515625 139.8000030517578125 138.6999969482421875 138 137.4000091552734375 137.4000091552734375 137.1999969482421875 137.8000030517578125 137.6999969482421875 137.100006103515625 137.8000030517578125 138.3000030517578125 137.1999969482421875 137.4000091552734375 138.1999969482421875 138.1999969482421875 138.9000091552734375 138.6999969482421875 139.3000030517578125 140.5 141.8000030517578125 142.100006103515625 143.3000030517578125 144.3000030517578125 144.600006103515625 144.3000030517578125 144.1999969482421875 143.5 141.9000091552734375 140.4000091552734375 139.6999969482421875 139.100006103515625 137.600006103515625 135.100006103515625 135.3000030517578125 136.100006103515625 133.100006103515625 127.8000030517578125 125.5 125.59999847412109375 125.8000030517578125 126 126.40000152587890625 124.70000457763671875 116 122.09999847412109375 127.90000152587890625 138.9000091552734375 138.3000030517578125 138.3000030517578125 137.8000030517578125 137.4000091552734375 137.4000091552734375 137.100006103515625 137.100006103515625 136.600006103515625 143.1999969482421875 136.100006103515625 136.5 135.8000030517578125 135.1999969482421875 134.3000030517578125 133 129.6999969482421875 124.59999847412109375 131.8000030517578125 130.600006103515625 128.5 124 124.20000457763671875 114.59999847412109375 106.8000030517578125 106.59999847412109375 106.70000457763671875 106.70000457763671875 106.5 107.5 108.8000030517578125 107.3000030517578125 107.3000030517578125 114.59999847412109375 116.90000152587890625 127.09999847412109375 125.70000457763671875 130.6999969482421875 137.100006103515625 139.4000091552734375 141.6999969482421875 144.600006103515625 146.6999969482421875 149.600006103515625 148.9000091552734375 152.100006103515625 154.600006103515625 157.9000091552734375 159.6999969482421875 160.1999969482421875 160.5 161.3000030517578125 161 162.3000030517578125 162.4000091552734375 158.600006103515625 156.3000030517578125 156.1999969482421875 154.3000030517578125 152.4000091552734375 152.4000091552734375 152.3000030517578125 150.100006103515625 148.600006103515625 145.6999969482421875 140.8000030517578125 136.9000091552734375 131.4000091552734375 122.3000030517578125 114.59999847412109375 110.09999847412109375 106.90000152587890625 102.09999847412109375 99.59999847412109375 103.20000457763671875 105.40000152587890625 105.5 100.20000457763671875 89.8000030517578125 83.5 81 80.20000457763671875 79.90000152587890625 79.20000457763671875 79.09999847412109375 79.3000030517578125 80.09999847412109375 81.8000030517578125 83.90000152587890625 86.09999847412109375 89.70000457763671875 87.90000152587890625 87.40000152587890625 87.40000152587890625
125.90000152587890625 125.59999847412109375 125.09999847412109375 125.70000457763671875 124.40000152587890625 125.59999847412109375 135 139.1999969482421875 139.9000091552734375 139.5 139.8000030517578125 139.6999969482421875 137.100006103515625 130.6999969482421875 142.6999969482421875 152.3000030517578125 153.6999969482421875 155.5 155.9000091552734375 155 152.6999969482421875 152.1999969482421875 153.1999969482421875 153.3000030517578125 151.8000030517578125 151.100006103515625 150.1999969482421875 148.6999969482421875 146.1999969482421875 145.5 143.6999969482421875 141.8000030517578125 140.5 139.6999969482421875 139.5 139.6999969482421875 139 139.6999969482421875 140 140.100006103515625 139.8000030517578125 138.6999969482421875 139.5 139.8000030517578125 140.100006103515625 141 140.8000030517578125 141.1999969482421875 142.100006103515625 143.100006103515625 144.4000091552734375 145.100006103515625 145.6999969482421875 146.4000091552734375 146.600006103515625 146.6999969482421875 146.5 145.9000091552734375 144.9000091552734375 143.6999969482421875 142.3000030517578125 140.3000030517578125 138.100006103515625 136.9000091552734375 134.4000091552734375 132.100006103515625 133.8000030517578125 135.100006103515625 125 125.70000457763671875 126.8000030517578125 128.3000030517578125 125.70000457763671875 127.5 126.59999847412109375 124.5 137.3000030517578125 139 139.600006103515625 139.1999969482421875 138.8000030517578125 138.3000030517578125 137.9000091552734375 137.8000030517578125 137.4000091552734375 137.100006103515625 137.1999969482421875 144.100006103515625 136.600006103515625 136.5 135.8000030517578125 133.600006103515625 127.8000030517578125 127.5 133.1999969482421875 132.600006103515625 131.4000091552734375 131.1999969482421875 130 128.1999969482421875 113.70000457763671875 107.70000457763671875 106.8000030517578125 106.8000030517578125 106.59999847412109375 106.70000457763671875 107.3000030517578125 108.09999847412109375 107.3000030517578125 119.8000030517578125 117.90000152587890625 123.90000152587890625 126.70000457763671875 129.100006103515625 134.6999969482421875 138.3000030517578125 140.6999969482421875 142.600006103515625 144.6999969482421875 146.5 146.5 150.6999969482421875 155.1999969482421875 159.5 161.1999969482421875 161.6999969482421875 163.100006103515625 164.100006103515625 164.6999969482421875 164.4000091552734375 160.9000091552734375 160.1999969482421875 158.600006103515625 155.8000030517578125 153.1999969482421875 151.1999969482421875 148.5 149.4000091552734375 148.6999969482421875 145.4000091552734375 143.1999969482421875 139.8000030517578125 136.100006103515625 127.09999847412109375 124 114.90000152587890625 109.90000152587890625 106.40000152587890625 103.8000030517578125 102.40000152587890625 105.40000152587890625 107.40000152587890625 106.90000152587890625 100.70000457763671875 93.20000457763671875 85.8000030517578125 82.8000030517578125 83 81 80.09999847412109375 80.8000030517578125 80.70000457763671875 82.90000152587890625 84.40000152587890625 88.90000152587890625 91 90.8000030517578125 91.3000030517578125 96.40000152587890625 93
127.40000152587890625 126.09999847412109375 125.20000457763671875 125.8000030517578125 125.90000152587890625 127.40000152587890625 145.1999969482421875 142.3000030517578125 141 140.600006103515625 140.6999969482421875 140.100006103515625 137 131.3000030517578125 128.5 147.8000030517578125 156 169.5 167 163 163.3000030517578125 160.8000030517578125 166 172 166.6999969482421875 162 160.9000091552734375 156 153 151.3000030517578125 149.3000030517578125 147 145 143.3000030517578125 142.600006103515625 141.600006103515625 141.4000091552734375 141.1999969482421875 141.8000030517578125 141.600006103515625 140.6999969482421875 140.600006103515625 141.100006103515625 141.8000030517578125 141.6999969482421875 142.5 143.100006103515625 143.6999969482421875 144.3000030517578125 145.100006103515625 146 146.9000091552734375 147.4000091552734375 148 148.600006103515625 148.9000091552734375 148.600006103515625 148.5 147.6999969482421875 146.5 145 142.1999969482421875 139.8000030517578125 136.6999969482421875 134 136 135.8000030517578125 136.3000030517578125 133.8000030517578125 126.40000152587890625 126.5 125.09999847412109375 125.09999847412109375 128.8000030517578125 129.100006103515625 129.8000030517578125 130.5 136.6999969482421875 139.5 140 140.1999969482421875 139.6999969482421875 139.600006103515625 139 139.100006103515625 138.5 138 137.600006103515625 137.3000030517578125 136.600006103515625 134.3000030517578125 132 134.4000091552734375 135.3000030517578125 134.9000091552734375 133.100006103515625 132.9000091552734375 128 132.600006103515625 129.100006103515625 120.3000030517578125 113.90000152587890625 109.59999847412109375 107.09999847412109375 106.90000152587890625 106.59999847412109375 106.90000152587890625 108.90000152587890625 109.3000030517578125 128.5 116.40000152587890625 116.70000457763671875 116.09999847412109375 124.3000030517578125 128 136.8000030517578125 139.8000030517578125 138.4000091552734375 139.4000091552734375 138.9000091552734375 143 146.6999969482421875 151.9000091552734375 160.100006103515625 162.9000091552734375 164.5 166.3000030517578125 165.9000091552734375 166.6999969482421875 164.4000091552734375 162.6999969482421875 160.1999969482421875 157.100006103515625 154.600006103515625 152.3000030517578125 149.6999969482421875 147.1999969482421875 144.9000091552734375 145.9000091552734375 143.9000091552734375 141.9000091552734375 137.4000091552734375 137.1999969482421875 129.8000030517578125 121.90000152587890625 115.90000152587890625 110.5 107.3000030517578125 103.8000030517578125 102 102.90000152587890625 105.90000152587890625 108 103.3000030517578125 97.20000457763671875 92.59999847412109375 82.90000152587890625 81 81.59999847412109375 81.90000152587890625 82.40000152587890625 84.59999847412109375 86.09999847412109375 88.5 95.70000457763671875 95.5 94.8000030517578125 94.70000457763671875 94.5 100.20000457763671875
128 126.8000030517578125 127.70000457763671875 128.9000091552734375 143.1999969482421875 143.3000030517578125 142.5 141.8000030517578125 141.3000030517578125 141.3000030517578125 140 137.4000091552734375 133.100006103515625 130.8000030517578125 129.600006103515625 130.6999969482421875 135.9000091552734375 145.3000030517578125 166.4000091552734375 168.9000091552734375 182.4000091552734375 177.600006103515625 170.4000091552734375 181.9000091552734375 191.8000030517578125 195.6999969482421875 195.1999969482421875 178.9000091552734375 163.8000030517578125 159.6999969482421875 155.8000030517578125 153 149.600006103515625 147.1999969482421875 146.100006103515625 143.600006103515625 142.8000030517578125 142.8000030517578125 142.8000030517578125 143.100006103515625 142.5 142.6999969482421875 142.1999969482421875 142.6999969482421875 143.3000030517578125 143.9000091552734375 145.3000030517578125 145.5 146.6999969482421875 147.5 148.100006103515625 149 149.6999969482421875 150.1999969482421875 150.8000030517578125 151.1999969482421875 150.5 149.6999969482421875 148.8000030517578125 147.4000091552734375 146 143.9000091552734375 141.1999969482421875 138.5 136.8000030517578125 138.3000030517578125 137.8000030517578125 136 136.1999969482421875 127.20000457763671875 127.3000030517578125 128.100006103515625 125.20000457763671875 129.5 130.3000030517578125 130.5 130.9000091552734375 131.4000091552734375 136.3000030517578125 140.4000091552734375 140.6999969482421875 140.9000091552734375 140.5 139.9000091552734375 139.1999969482421875 139.3000030517578125 139.1999969482421875 139.100006103515625 138.3000030517578125 137.8000030517578125 137.600006103515625 136.4000091552734375 132.600006103515625 136.1999969482421875 135.6999969482421875 134.1999969482421875 131.9000091552734375 129.600006103515625 133.600006103515625 129.8000030517578125 130.6999969482421875 124.5 116.09999847412109375 112.40000152587890625 109.09999847412109375 108.20000457763671875 108 109.90000152587890625 109.70000457763671875 111.3000030517578125 109.59999847412109375 112 113.09999847412109375 117.3000030517578125 121.59999847412109375 128.9000091552734375 132.3000030517578125 137.100006103515625 142 147.3000030517578125 148.3000030517578125 151.100006103515625 155.1999969482421875 157 159.3000030517578125 161.600006103515625 163.100006103515625 164.100006103515625 163.100006103515625 161.600006103515625 160.5 158.100006103515625 155.3000030517578125 152.600006103515625 149.600006103515625 148.9000091552734375 147.8000030517578125 144.8000030517578125 144.3000030517578125 142.5 141.5 140.8000030517578125 138 128.8000030517578125 119.20000457763671875 115.5 110.59999847412109375 106.70000457763671875 102.40000152587890625 100.40000152587890625 103.3000030517578125 107.3000030517578125 106.40000152587890625 102.90000152587890625 99 92.90000152587890625 82.3000030517578125 82.5 81.90000152587890625 82.09999847412109375 84.8000030517578125 87.90000152587890625 94.59999847412109375 91.5 94.5 97 99.8000030517578125 99.3000030517578125 98.5 98.09999847412109375
129.6999969482421875 134.4000091552734375 141.9000091552734375 142.9000091552734375 143.4000091552734375 142.8000030517578125 142.8000030517578125 142.8000030517578125 142.9000091552734375 142.9000091552734375 140.600006103515625 136.5 135.1999969482421875 133.5 132 130.4000091552734375 130.9000091552734375 136.4000091552734375 143 144.5 153.1999969482421875 174.8000030517578125 186.8000030517578125 176.9000091552734375 167.100006103515625 182.6999969482421875 200.8000030517578125 199.9000091552734375 189.5 173 168.600006103515625 162.5 156.5 154.100006103515625 150.3000030517578125 147.4000091552734375 145.8000030517578125 145.100006103515625 144.1999969482421875 144.5 144.9000091552734375 144.5 144.9000091552734375 146.600006103515625 147.3000030517578125 148 148.8000030517578125 149 150.100006103515625 150.600006103515625 152.100006103515625 153 153.600006103515625 154.100006103515625 153.6999969482421875 152.8000030517578125 151.9000091552734375 150.600006103515625 149.4000091552734375 148.1999969482421875 146.3000030517578125 145 143.9000091552734375 142.3000030517578125 142 141.100006103515625 139.5 138.3000030517578125 137.100006103515625 135.8000030517578125 128 128.1999969482421875 128.600006103515625 129.600006103515625 130.5 131 131.3000030517578125 132.1999969482421875 132.6999969482421875 135.8000030517578125 141.3000030517578125 134.8000030517578125 133.6999969482421875 140.5 140.8000030517578125 140 139.6999969482421875 139.6999969482421875 139.600006103515625 138.9000091552734375 138.6999969482421875 137.9000091552734375 136.1999969482421875 137.100006103515625 138 136.6999969482421875 138.8000030517578125 136.1999969482421875 134.9000091552734375 133.5 134.600006103515625 132.3000030517578125 126.5 117.8000030517578125 112.59999847412109375 111.70000457763671875 109.5 109.59999847412109375 110.09999847412109375 111.8000030517578125 112.59999847412109375 119.8000030517578125 120.09999847412109375 120.20000457763671875 124 129.4000091552734375 137.1999969482421875 140.100006103515625 144.5 147.6999969482421875 147.600006103515625 151.6999969482421875 153.4000091552734375 155.5 158.100006103515625 160.6999969482421875 161.600006103515625 161.9000091552734375 161 159.8000030517578125 161.100006103515625 156.5 154.3000030517578125 152.4000091552734375 149.6999969482421875 146.600006103515625 140 141 138.9000091552734375 139.100006103515625 135.100006103515625 139.100006103515625 136.5 130 123.70000457763671875 116.09999847412109375 109.3000030517578125 104.59999847412109375 101 99.40000152587890625 104.59999847412109375 112.09999847412109375 107.70000457763671875 103.3000030517578125 99 83.40000152587890625 82.5 83.3000030517578125 83.3000030517578125 86.20000457763671875 88.70000457763671875 89.70000457763671875 93.8000030517578125 97 95.90000152587890625 101.20000457763671875 102.3000030517578125 103.8000030517578125 104.20000457763671875 102.59999847412109375
130.600006103515625 133.8000030517578125 142.1999969482421875 143.8000030517578125 143.6999969482421875 143.3000030517578125 143.4000091552734375 143.5 144 143.5 141 139.600006103515625 141.4000091552734375 139.1999969482421875 134.9000091552734375 132.600006103515625 131.6999969482421875 132.5 135 138 142.1999969482421875 149.5 151.9000091552734375 168 158.5 168.1999969482421875 178.4000091552734375 200.1999969482421875 205.5 198 192.9000091552734375 178.1999969482421875 168 161 156.600006103515625 153.3000030517578125 151.1999969482421875 149.1999969482421875 148.5 147.600006103515625 148.1999969482421875 148 149 150.3000030517578125 151.6999969482421875 152 152.5 152.8000030517578125 154.3000030517578125 154.3000030517578125 156.3000030517578125 158.3000030517578125 158.600006103515625 158.4000091552734375 157.4000091552734375 155.8000030517578125 154.1999969482421875 153 152.100006103515625 151.5 150.8000030517578125 150 147.3000030517578125 145.1999969482421875 143.6999969482421875 142.3000030517578125 141.3000030517578125 141.100006103515625 139.8000030517578125 139 136.1999969482421875 129.3000030517578125 129.5 129.8000030517578125 130.6999969482421875 131.4000091552734375 132 132.5 133.100006103515625 133.5 137.4000091552734375 141.3000030517578125 142.5 141.6999969482421875 142 141 140.5 140.4000091552734375 140.100006103515625 140.100006103515625 139.5 138.9000091552734375 137.600006103515625 138.100006103515625 137.100006103515625 137.4000091552734375 137.600006103515625 137.8000030517578125 137.4000091552734375 136.1999969482421875 135.5 132.6999969482421875 124.8000030517578125 119.20000457763671875 115.20000457763671875 112.09999847412109375 111.70000457763671875 110.90000152587890625 109.90000152587890625 110.40000152587890625 112.3000030517578125 114.3000030517578125 112.8000030517578125 116.70000457763671875 119.5 124.5 132.3000030517578125 136.1999969482421875 144.100006103515625 145.100006103515625 147.8000030517578125 150.3000030517578125 152.9000091552734375 154.6999969482421875 156.4000091552734375 157.6999969482421875 158.600006103515625 159.6999969482421875 158.8000030517578125 158.5 157.6999969482421875 156.6999969482421875 155.3000030517578125 153.100006103515625 146.4000091552734375 139.3000030517578125 136.3000030517578125 130.1999969482421875 137 137.1999969482421875 132.5 135.4000091552734375 133.9000091552734375 128.1999969482421875 122.5 116.09999847412109375 107.90000152587890625 101.8000030517578125 100.09999847412109375 98.90000152587890625 105.3000030517578125 112.90000152587890625 108.90000152587890625 100.5 84.20000457763671875 83.5 83.40000152587890625 85.5 89.20000457763671875 91.59999847412109375 95.20000457763671875 98.3000030517578125 103 101.09999847412109375 100.40000152587890625 100 102 106.59999847412109375 108 107.40000152587890625
132.100006103515625 140.600006103515625 143.6999969482421875 143.4000091552734375 143.3000030517578125 143.600006103515625 143.9000091552734375 143.8000030517578125 145 144.5 141.1999969482421875 144.3000030517578125 144.100006103515625 140.8000030517578125 140.600006103515625 138.600006103515625 134.6999969482421875 133.5 135.6999969482421875 137.4000091552734375 139.600006103515625 141.100006103515625 148.5 157.5 168.4000091552734375 181.5 177.1999969482421875 175.6999969482421875 188.4000091552734375 198.600006103515625 208.9000091552734375 204.600006103515625 187.1999969482421875 186.6999969482421875 177.100006103515625 166 159.5 156.8000030517578125 155.100006103515625 152.9000091552734375 150.6999969482421875 152.600006103515625 155.3000030517578125 157.1999969482421875 157.9000091552734375 157.5 156.9000091552734375 157.100006103515625 158.600006103515625 159.100006103515625 162.1999969482421875 164.8000030517578125 165.100006103515625 163.4000091552734375 162.3000030517578125 160.4000091552734375 158.3000030517578125 156.6999969482421875 156.100006103515625 156.600006103515625 155.6999969482421875 154.8000030517578125 152.5 149.3000030517578125 146.8000030517578125 144.1999969482421875 142.9000091552734375 141.6999969482421875 140.6999969482421875 140.5 138.600006103515625 130 130.8000030517578125 130.5 131.3000030517578125 132.3000030517578125 132.6999969482421875 133.4000091552734375 133.600006103515625 134.1999969482421875 135.4000091552734375 140.8000030517578125 134 142.5 142.8000030517578125 142.600006103515625 141.3000030517578125 141.1999969482421875 140.6999969482421875 140.1999969482421875 139.8000030517578125 138.5 139.1999969482421875 139.1999969482421875 138.8000030517578125 137.5 139.4000091552734375 139.600006103515625 139.600006103515625 138.4000091552734375 137.5 133.600006103515625 130.3000030517578125 111.59999847412109375 123.3000030517578125 116.8000030517578125 113.5 112.20000457763671875 111.8000030517578125 109.59999847412109375 112 113.40000152587890625 116.70000457763671875 112.90000152587890625 116.40000152587890625 123.8000030517578125 128.1999969482421875 131.1999969482421875 142.6999969482421875 145 147.3000030517578125 149.4000091552734375 152 152.9000091552734375 154.600006103515625 156.6999969482421875 157.4000091552734375 158.100006103515625 158.4000091552734375 158.6999969482421875 158.100006103515625 157 154.6999969482421875 149.1999969482421875 142.6999969482421875 135 131 129 128.5 129.3000030517578125 130.600006103515625 124.40000152587890625 129.3000030517578125 123.3000030517578125 114.09999847412109375 108.09999847412109375 101.3000030517578125 99.5 97.90000152587890625 97 102.40000152587890625 112 104.70000457763671875 85.70000457763671875 84.40000152587890625 85.3000030517578125 90.3000030517578125 93.3000030517578125 92.70000457763671875 103.8000030517578125 107.20000457763671875 105 107.3000030517578125 106.5 107.09999847412109375 109.20000457763671875 110.70000457763671875 108.09999847412109375 112.5 111.40000152587890625
133.9000091552734375 143.6999969482421875 144.4000091552734375 144.6999969482421875 144.4000091552734375 144.3000030517578125 144.5 145.100006103515625 145.1999969482421875 144.100006103515625 145 147.6999969482421875 147 144.3000030517578125 143.100006103515625 145.1999969482421875 143.9000091552734375 136.3000030517578125 134.6999969482421875 135.3000030517578125 139 137.5 137.8000030517578125 140.1999969482421875 150.8000030517578125 157.600006103515625 166.9000091552734375 170.9000091552734375 153.1999969482421875 165.100006103515625 181 187.1999969482421875 193 188.3000030517578125 177.5 167.8000030517578125 162.6999969482421875 159.4000091552734375 157 154.9000091552734375 153.3000030517578125 158.9000091552734375 168.100006103515625 167.100006103515625 166.8000030517578125 166.6999969482421875 163.600006103515625 162.3000030517578125 162.8000030517578125 165.1999969482421875 157.600006103515625 154.5 179.600006103515625 168.1999969482421875 165.5 162.8000030517578125 160.4000091552734375 159.5 159 158.8000030517578125 158.8000030517578125 157.600006103515625 156.1999969482421875 150.3000030517578125 149.9000091552734375 148.100006103515625 145.6999969482421875 143.8000030517578125 142.600006103515625 141.3000030517578125 136.3000030517578125 131.5 134.600006103515625 134.4000091552734375 131.6999969482421875 133.1999969482421875 133.1999969482421875 133.8000030517578125 134.1999969482421875 134.5 135.100006103515625 136.6999969482421875 134.8000030517578125 143.600006103515625 143.6999969482421875 143.5 142.8000030517578125 141.9000091552734375 141.600006103515625 141.4000091552734375 140.3000030517578125 139.6999969482421875 139.4000091552734375 140 139.6999969482421875 138.600006103515625 139.6999969482421875 140.1999969482421875 140.6999969482421875 140.9000091552734375 139.4000091552734375 138.100006103515625 136.5 137.1999969482421875 129.5 122.20000457763671875 116.70000457763671875 113.8000030517578125 111.5 112 110.40000152587890625 111.59999847412109375 112.20000457763671875 115.8000030517578125 115.8000030517578125 121.90000152587890625 129.6999969482421875 134.6999969482421875 136.100006103515625 141.9000091552734375 144.6999969482421875 147.6999969482421875 149 150.6999969482421875 150.1999969482421875 153.3000030517578125 155.3000030517578125 157.6999969482421875 161.1999969482421875 159.4000091552734375 159 158 155.1999969482421875 150.5 143.8000030517578125 134.4000091552734375 129.3000030517578125 125.5 123.90000152587890625 122.59999847412109375 124.5 117.09999847412109375 124.8000030517578125 121.90000152587890625 115 105.90000152587890625 115.40000152587890625 107.5 99.20000457763671875 95.5 100.40000152587890625 108.59999847412109375 85.59999847412109375 84.90000152587890625 85.8000030517578125 95.70000457763671875 106.59999847412109375 107.5 109.09999847412109375 107.8000030517578125 109.8000030517578125 110.40000152587890625 112.70000457763671875 112.5 113.09999847412109375 115.40000152587890625 116.5 113.09999847412109375 116.5 115.70000457763671875
135.600006103515625 144.5 145.5 146.100006103515625 146.5 146.5 146.3000030517578125 145.8000030517578125 145.4000091552734375 144.4000091552734375 149.4000091552734375 150.9000091552734375 150.1999969482421875 147.600006103515625 145.4000091552734375 142.4000091552734375 139.6999969482421875 137.1999969482421875 136.9000091552734375 136.6999969482421875 136.9000091552734375 137.9000091552734375 137.600006103515625 138.100006103515625 138.600006103515625 140.8000030517578125 145.4000091552734375 157.100006103515625 149.8000030517578125 152.9000091552734375 162.4000091552734375 165.3000030517578125 170.4000091552734375 170.4000091552734375 165.5 162.3000030517578125 159.600006103515625 157.5 156.1999969482421875 156.3000030517578125 158.600006103515625 169.8000030517578125 184.100006103515625 185.6999969482421875 186.600006103515625 175.5 170.4000091552734375 167.5 167.100006103515625 156.1999969482421875 152.8000030517578125 149.600006103515625 167.8000030517578125 165.5 163.8000030517578125 162.600006103515625 161.100006103515625 160.3000030517578125 160.100006103515625 159.600006103515625 158.9000091552734375 157.600006103515625 155.9000091552734375 153.4000091552734375 152.4000091552734375 151.5 149.6999969482421875 147 143.600006103515625 141 136 136.600006103515625 140.100006103515625 137 142 132 134.100006103515625 134.3000030517578125 134.9000091552734375 135 135.100006103515625 136.1999969482421875 134.9000091552734375 144.1999969482421875 144.3000030517578125 143.9000091552734375 143.6999969482421875 142.4000091552734375 142.5 141.600006103515625 141.4000091552734375 141.100006103515625 141 140.3000030517578125 140.6999969482421875 140.3000030517578125 141 141.1999969482421875 141 142 141.9000091552734375 141 130.6999969482421875 125.09999847412109375 134.3000030517578125 123.20000457763671875 126.20000457763671875 118 112.40000152587890625 109.8000030517578125 112.09999847412109375 112 114.09999847412109375 116.70000457763671875 122.59999847412109375 123.40000152587890625 125.20000457763671875 130.600006103515625 132.6999969482421875 141.1999969482421875 144.4000091552734375 147.1999969482421875 148.100006103515625 148.3000030517578125 150.5 149.600006103515625 149 152.9000091552734375 158.3000030517578125 158.5 159.4000091552734375 158.600006103515625 155.5 152.8000030517578125 146.5 140.1999969482421875 134.8000030517578125 132.1999969482421875 129.8000030517578125 123.09999847412109375 121 119.09999847412109375 112.5 112.3000030517578125 113.70000457763671875 117.90000152587890625 120.20000457763671875 115.70000457763671875 104 91.90000152587890625 96.20000457763671875 94.09999847412109375 86 85.8000030517578125 90.59999847412109375 102.40000152587890625 112.8000030517578125 113.5 113.5 115.70000457763671875 116.20000457763671875 117.09999847412109375 117.20000457763671875 118 119.40000152587890625 119.90000152587890625 119.90000152587890625 119.59999847412109375 121.09999847412109375 119.90000152587890625
138 145.100006103515625 146.9000091552734375 148.100006103515625 148.6999969482421875 148.6999969482421875 147.600006103515625 146.8000030517578125 146.8000030517578125 149.6999969482421875 152 152.9000091552734375 152.3000030517578125 151.600006103515625 148.600006103515625 143.600006103515625 141.8000030517578125 143 143.1999969482421875 146.600006103515625 144.100006103515625 146.1999969482421875 145.1999969482421875 144.4000091552734375 142.600006103515625 141.600006103515625 140.8000030517578125 140.5 142.5 148.1999969482421875 147 151.5 156 157.600006103515625 157.5 156.9000091552734375 156.600006103515625 157.1999969482421875 157.1999969482421875 156.8000030517578125 159.9000091552734375 162.600006103515625 170.600006103515625 177.4000091552734375 182.1999969482421875 180.1999969482421875 172.4000091552734375 170.4000091552734375 168 166.9000091552734375 166.100006103515625 165 163.1999969482421875 162.5 161.3000030517578125 159.9000091552734375 158.100006103515625 156.5 155.3000030517578125 154 153.1999969482421875 152.9000091552734375 151.6999969482421875 152.8000030517578125 152.4000091552734375 151 150.3000030517578125 148.3000030517578125 143.600006103515625 137.100006103515625 134.4000091552734375 140.6999969482421875 141.3000030517578125 136 143 143.8000030517578125 133.5 134.6999969482421875 134.6999969482421875 135.8000030517578125 136.5 133.600006103515625 144 145.8000030517578125 144.8000030517578125 144.600006103515625 145.100006103515625 143.8000030517578125 143.5 142.4000091552734375 142.5 142.3000030517578125 141.9000091552734375 141.6999969482421875 141.100006103515625 141.1999969482421875 141.9000091552734375 141.8000030517578125 142 142.5 143.100006103515625 142.8000030517578125 141.8000030517578125 138.600006103515625 131 136.100006103515625 129.9000091552734375 129.600006103515625 123.5 114.59999847412109375 112.8000030517578125 112.8000030517578125 114.70000457763671875 118.70000457763671875 121.70000457763671875 126.70000457763671875 129.9000091552734375 135 138.600006103515625 140.3000030517578125 143.6999969482421875 144.6999969482421875 144.3000030517578125 146.1999969482421875 147.5 147.5 145.3000030517578125 145.9000091552734375 151.1999969482421875 156.600006103515625 157.1999969482421875 156.5 154.6999969482421875 154.100006103515625 148.100006103515625 144.1999969482421875 141.5 137.100006103515625 136.5 131.9000091552734375 133.100006103515625 128.8000030517578125 125.59999847412109375 125 127.5 128.8000030517578125 125.8000030517578125 121.8000030517578125 109.20000457763671875 90.70000457763671875 99.3000030517578125 86.5 86.09999847412109375 90.59999847412109375 102 105.40000152587890625 116.09999847412109375 118.8000030517578125 121.5 126.20000457763671875 126.40000152587890625 126.09999847412109375 124.90000152587890625 125.40000152587890625 126.8000030517578125 126.3000030517578125 123.59999847412109375 120.20000457763671875 121.59999847412109375 123
139.4000091552734375 142 148.6999969482421875 150.1999969482421875 150.4000091552734375 150.5 149.3000030517578125 148.8000030517578125 148.6999969482421875 151.4000091552734375 154.3000030517578125 154.1999969482421875 154.5 153.6999969482421875 152.1999969482421875 146.600006103515625 155.100006103515625 153.1999969482421875 150 153.1999969482421875 153.600006103515625 154.3000030517578125 155.4000091552734375 155.3000030517578125 156.100006103515625 154.4000091552734375 152 150.9000091552734375 147.4000091552734375 146.600006103515625 144.600006103515625 144.1999969482421875 149.8000030517578125 152.6999969482421875 154.8000030517578125 155.9000091552734375 158.4000091552734375 159.9000091552734375 160.600006103515625 161.9000091552734375 163.8000030517578125 165.1999969482421875 165.8000030517578125 168.3000030517578125 168.5 168.4000091552734375 166.600006103515625 165.8000030517578125 164.6999969482421875 163.6999969482421875 162.5 162.4000091552734375 161.100006103515625 159.4000091552734375 158.3000030517578125 156.8000030517578125 155 154.6999969482421875 154.4000091552734375 153.100006103515625 150.4000091552734375 148.6999969482421875 148.600006103515625 152.100006103515625 151.8000030517578125 151.3000030517578125 149.4000091552734375 145.8000030517578125 141.600006103515625 138 137.3000030517578125 142.100006103515625 142.3000030517578125 137.3000030517578125 142.9000091552734375 143.6999969482421875 144.5 135.8000030517578125 135.6999969482421875 135.8000030517578125 137.100006103515625 132.5 140.100006103515625 146.100006103515625 145.9000091552734375 145.600006103515625 145 144.6999969482421875 144.600006103515625 143.5 143.1999969482421875 143.6999969482421875 142.3000030517578125 142.1999969482421875 141.9000091552734375 141.8000030517578125 142.100006103515625 142.1999969482421875 143.600006103515625 142.6999969482421875 143.3000030517578125 143.5 142.8000030517578125 139.4000091552734375 140.600006103515625 139.100006103515625 138.100006103515625 137.600006103515625 133.600006103515625 120.8000030517578125 114.3000030517578125 114.09999847412109375 114.20000457763671875 114.90000152587890625 117.40000152587890625 125.70000457763671875 127.5 133.4000091552734375 141.1999969482421875 140.6999969482421875 141.100006103515625 143.100006103515625 146.600006103515625 145.1999969482421875 145.4000091552734375 145.100006103515625 142.9000091552734375 139.100006103515625 143.600006103515625 149.600006103515625 149 152.3000030517578125 154 152.600006103515625 148.4000091552734375 146.1999969482421875 144.4000091552734375 141.8000030517578125 139.1999969482421875 138.6999969482421875 138.1999969482421875 135.4000091552734375 133.9000091552734375 132 131.6999969482421875 131.600006103515625 127 122.90000152587890625 113.09999847412109375 91.8000030517578125 87.20000457763671875 86.59999847412109375 90.40000152587890625 104.40000152587890625 117.3000030517578125 113.09999847412109375 123 127.90000152587890625 131.4000091552734375 134.4000091552734375 134.9000091552734375 135.600006103515625 134.9000091552734375 133 131.6999969482421875 130.600006103515625 128.9000091552734375 124.40000152587890625 122.8000030517578125 126.09999847412109375
142.100006103515625 142.8000030517578125 149.600006103515625 150.8000030517578125 152.600006103515625 152.3000030517578125 152.6999969482421875 152 152.100006103515625 153.5 155.5 156.3000030517578125 156.8000030517578125 156.6999969482421875 155.1999969482421875 148.600006103515625 156.9000091552734375 157.1999969482421875 157.1999969482421875 159.100006103515625 159.8000030517578125 160.1999969482421875 161.6999969482421875 161.6999969482421875 162.4000091552734375 162.100006103515625 160.1999969482421875 157.5 152.9000091552734375 148.3000030517578125 144.8000030517578125 145.100006103515625 151.3000030517578125 154.8000030517578125 155.6999969482421875 160.3000030517578125 165.1999969482421875 171.600006103515625 170.8000030517578125 170.4000091552734375 169.4000091552734375 168.600006103515625 168.100006103515625 166.9000091552734375 165.4000091552734375 164.1999969482421875 164.5 164 163.3000030517578125 163.1999969482421875 162.5 161.600006103515625 160.4000091552734375 159.9000091552734375 158.5 158 157.100006103515625 155.8000030517578125 154.100006103515625 151.6999969482421875 150.100006103515625 148.5 147 145.9000091552734375 147.3000030517578125 149.4000091552734375 148.5 147.4000091552734375 145 138.6999969482421875 138.4000091552734375 145.8000030517578125 145 138.4000091552734375 144.100006103515625 144.600006103515625 144.6999969482421875 136.100006103515625 136.5 136.3000030517578125 137.4000091552734375 138.4000091552734375 140 145.9000091552734375 149.5 147.4000091552734375 145.8000030517578125 145.4000091552734375 145.100006103515625 144.4000091552734375 143.6999969482421875 143.6999969482421875 143.1999969482421875 142.5 142.4000091552734375 142.5 142.600006103515625 143.3000030517578125 143.5 143.9000091552734375 143.6999969482421875 143.6999969482421875 142.6999969482421875 143.8000030517578125 142.9000091552734375 142.1999969482421875 140.1999969482421875 138.4000091552734375 129.6999969482421875 121.20000457763671875 116.5 115.59999847412109375 115 114.90000152587890625 115.70000457763671875 120 124.40000152587890625 130.600006103515625 137 138.5 140.3000030517578125 138.8000030517578125 137.8000030517578125 138 142.1999969482421875 142.100006103515625 133.100006103515625 131 139.1999969482421875 136 143 146.6999969482421875 147.600006103515625 146.8000030517578125 147.3000030517578125 146.1999969482421875 143.4000091552734375 142.5 137.5 139.9000091552734375 139.5 138.6999969482421875 136.8000030517578125 133 128.600006103515625 129.3000030517578125 122.59999847412109375 117.59999847412109375 104.09999847412109375 87.40000152587890625 87.09999847412109375 89.8000030517578125 109.59999847412109375 116.90000152587890625 124.90000152587890625 128.1999969482421875 132.8000030517578125 138.3000030517578125 139.1999969482421875 136.4000091552734375 138.100006103515625 139.8000030517578125 140.8000030517578125 140.600006103515625 139 137.5 134.9000091552734375 129.6999969482421875 125.70000457763671875 128.3000030517578125
144.1999969482421875 144.9000091552734375 147.9000091552734375 151.600006103515625 154.6999969482421875 155.100006103515625 156 155.4000091552734375 155.3000030517578125 156 157.4000091552734375 159.5 160 159.600006103515625 158.5 151.1999969482421875 156.6999969482421875 158.9000091552734375 160.100006103515625 161.8000030517578125 162.8000030517578125 163.600006103515625 163.6999969482421875 163.3000030517578125 163.100006103515625 161.4000091552734375 159 154.600006103515625 152.3000030517578125 148.1999969482421875 146.100006103515625 146.9000091552734375 146.600006103515625 164 162.100006103515625 163.600006103515625 165.4000091552734375 165.8000030517578125 165.6999969482421875 165.8000030517578125 165.9000091552734375 167 167.4000091552734375 165.100006103515625 165.3000030517578125 164.6999969482421875 163.3000030517578125 163.3000030517578125 163.600006103515625 164.100006103515625 164.1999969482421875 163.3000030517578125 162.4000091552734375 161.600006103515625 160.5 159.6999969482421875 157.8000030517578125 154.8000030517578125 152.6999969482421875 151.600006103515625 150.100006103515625 149.600006103515625 147.600006103515625 146.1999969482421875 144.6999969482421875 144.1999969482421875 143.3000030517578125 142.6999969482421875 140.600006103515625 139.4000091552734375 144.3000030517578125 148.1999969482421875 144.9000091552734375 143.1999969482421875 145.1999969482421875 145.6999969482421875 145.5 136.600006103515625 136.1999969482421875 137.3000030517578125 137.5 137.8000030517578125 138.3000030517578125 143.8000030517578125 152.600006103515625 150.600006103515625 148.100006103515625 146.1999969482421875 145.8000030517578125 145.100006103515625 144.600006103515625 144 143.5 143.1999969482421875 143.100006103515625 143.4000091552734375 143.9000091552734375 143.9000091552734375 144 144.3000030517578125 144.1999969482421875 144.4000091552734375 144.100006103515625 144.600006103515625 145.1999969482421875 144.3000030517578125 141.8000030517578125 138 131.9000091552734375 125.3000030517578125 118.59999847412109375 116.40000152587890625 116.3000030517578125 115.90000152587890625 115.40000152587890625 117 119.09999847412109375 125.5 132.4000091552734375 135.600006103515625 135.6999969482421875 131.100006103515625 137.9000091552734375 137 143.6999969482421875 140.4000091552734375 138.1999969482421875 127 124 121.09999847412109375 137.100006103515625 134.3000030517578125 140.5 139 144.100006103515625 142.100006103515625 140.3000030517578125 139.9000091552734375 138.9000091552734375 140 134.1999969482421875 127 131.9000091552734375 126.40000152587890625 105.8000030517578125 110.20000457763671875 97 89.09999847412109375 88.59999847412109375 87.3000030517578125 89.5 101 109 121.90000152587890625 125.40000152587890625 141.3000030517578125 138.4000091552734375 138.9000091552734375 137.9000091552734375 135.1999969482421875 135.1999969482421875 135.9000091552734375 139.9000091552734375 142 142.8000030517578125 140.6999969482421875 136.9000091552734375 130.5 129.3000030517578125 130.6999969482421875
146.600006103515625 147.9000091552734375 150 156.3000030517578125 157.5 159.6999969482421875 159.3000030517578125 160.100006103515625 159.3000030517578125 158.8000030517578125 161.100006103515625 162.5 163.1999969482421875 162 159.8000030517578125 161.3000030517578125 162.600006103515625 161.100006103515625 162.4000091552734375 163.5 163.8000030517578125 163.5 162.100006103515625 160.8000030517578125 158.5 155.5 153.100006103515625 151.8000030517578125 150.4000091552734375 149.600006103515625 151.6999969482421875 153.100006103515625 150.9000091552734375 148.5 153.8000030517578125 157.6999969482421875 163.6999969482421875 163.6999969482421875 161 160.4000091552734375 161.5 163.3000030517578125 163.8000030517578125 164.6999969482421875 164.9000091552734375 164.6999969482421875 164.5 165.4000091552734375 165.5 165.8000030517578125 165.5 165 164.4000091552734375 163 161.600006103515625 157.9000091552734375 156.3000030517578125 155.3000030517578125 153.9000091552734375 152.6999969482421875 152.8000030517578125 151.5 152.1999969482421875 153 150.100006103515625 147.8000030517578125 145.9000091552734375 146.4000091552734375 150.8000030517578125 154.600006103515625 154.9000091552734375 150.9000091552734375 147.8000030517578125 144.100006103515625 147.8000030517578125 146.6999969482421875 145.9000091552734375 137.6999969482421875 137.5 138 138.3000030517578125 140.1999969482421875 138 141.8000030517578125 156 153.100006103515625 150.3000030517578125 148.8000030517578125 148 146.4000091552734375 145.6999969482421875 144.6999969482421875 144.1999969482421875 143.8000030517578125 143.9000091552734375 144.5 144.6999969482421875 145 145.3000030517578125 146.1999969482421875 145.1999969482421875 145.6999969482421875 145.3000030517578125 145.600006103515625 148.100006103515625 147.5 143.5 136.6999969482421875 135.8000030517578125 121.3000030517578125 119.70000457763671875 118.8000030517578125 117.09999847412109375 114 114.20000457763671875 113.3000030517578125 116.8000030517578125 118.40000152587890625 123.90000152587890625 129.600006103515625 123.59999847412109375 132.9000091552734375 137.3000030517578125 133.600006103515625 133.8000030517578125 136 136.100006103515625 131.4000091552734375 120.20000457763671875 121.3000030517578125 131.8000030517578125 127 128.9000091552734375 124.20000457763671875 137.3000030517578125 135.9000091552734375 136.600006103515625 138.600006103515625 137.5 130.9000091552734375 125.5 119 112.3000030517578125 109.3000030517578125 91.20000457763671875 90.09999847412109375 88.90000152587890625 89.20000457763671875 89.8000030517578125 97.59999847412109375 110.70000457763671875 113.59999847412109375 106.09999847412109375 124 136.3000030517578125 136.9000091552734375 137.600006103515625 138.8000030517578125 137.100006103515625 135.3000030517578125 135.1999969482421875 136.600006103515625 139.6999969482421875 141 143.600006103515625 142.4000091552734375 138.9000091552734375 133.4000091552734375 130.3000030517578125 141.100006103515625
148.4000091552734375 150.6999969482421875 158.4000091552734375 158.100006103515625 160.100006103515625 161.1999969482421875 163.600006103515625 163.100006103515625 162.600006103515625 162.1999969482421875 164 165 165.8000030517578125 164.1999969482421875 160.3000030517578125 162.9000091552734375 164.5 164.8000030517578125 163.9000091552734375 163.5 162 160.8000030517578125 159.3000030517578125 158.4000091552734375 157.9000091552734375 157.1999969482421875 156.6999969482421875 156.4000091552734375 156.6999969482421875 156.100006103515625 154.8000030517578125 152.600006103515625 149.6999969482421875 147.9000091552734375 149.8000030517578125 149.8000030517578125 152 156.100006103515625 159.8000030517578125 159.3000030517578125 159.8000030517578125 161.5 162.4000091552734375 161.6999969482421875 163.3000030517578125 164.8000030517578125 166.100006103515625 167.1999969482421875 167.3000030517578125 168 167.6999969482421875 167 165.6999969482421875 162.600006103515625 160.6999969482421875 159.3000030517578125 157.6999969482421875 157.5 157.100006103515625 157.100006103515625 156.5 155.600006103515625 155.100006103515625 153.8000030517578125 152.4000091552734375 152.4000091552734375 153 153.5 154.3000030517578125 153.600006103515625 153.6999969482421875 152.3000030517578125 148.1999969482421875 147.3000030517578125 148.6999969482421875 149.600006103515625 148.8000030517578125 138.1999969482421875 138.5 139 139.1999969482421875 139.3000030517578125 139.4000091552734375 139.600006103515625 153.100006103515625 156.1999969482421875 153.600006103515625 151.1999969482421875 150.3000030517578125 148.3000030517578125 147.6999969482421875 146.100006103515625 144.5 143.9000091552734375 144.4000091552734375 144.6999969482421875 145.1999969482421875 145.600006103515625 146 146.100006103515625 146.1999969482421875 146.5 146.600006103515625 147.3000030517578125 148.6999969482421875 147.600006103515625 139.6999969482421875 118.5 116.09999847412109375 134.5 127.70000457763671875 116.8000030517578125 113.3000030517578125 115.09999847412109375 114 112.5 113.40000152587890625 118.3000030517578125 120.70000457763671875 123.09999847412109375 120.59999847412109375 125.20000457763671875 123.20000457763671875 128.5 129.100006103515625 132.5 132.600006103515625 131.8000030517578125 121.3000030517578125 113.20000457763671875 126.8000030517578125 133 121.5 128.9000091552734375 127.8000030517578125 123.09999847412109375 127.09999847412109375 126.90000152587890625 120.09999847412109375 114.3000030517578125 105.20000457763671875 98.40000152587890625 90.59999847412109375 91.40000152587890625 91.40000152587890625 89.8000030517578125 92 101.70000457763671875 106.5 112.59999847412109375 119.09999847412109375 117.09999847412109375 108.90000152587890625 120.8000030517578125 135.600006103515625 138.8000030517578125 137.100006103515625 138.4000091552734375 139.1999969482421875 140.100006103515625 138 137.5 138.8000030517578125 138.6999969482421875 141.100006103515625 142.1999969482421875 138.6999969482421875 134.600006103515625 131.6999969482421875 131.8000030517578125
150.8000030517578125 152.1999969482421875 159.100006103515625 161.600006103515625 161.600006103515625 164.100006103515625 166.6999969482421875 171.1999969482421875 166.100006103515625 165.6999969482421875 166.6999969482421875 167.600006103515625 167.4000091552734375 166.6999969482421875 164.6999969482421875 160.8000030517578125 166.8000030517578125 166.1999969482421875 164.8000030517578125 163.6999969482421875 163 162.1999969482421875 161.8000030517578125 162 161.1999969482421875 160.6999969482421875 160.1999969482421875 159.1999969482421875 158.8000030517578125 157.5 155.4000091552734375 152.1999969482421875 150.5 152.4000091552734375 153.600006103515625 154.100006103515625 153.1999969482421875 154.3000030517578125 154.4000091552734375 156.600006103515625 158.8000030517578125 160.3000030517578125 161.6999969482421875 163.8000030517578125 164.8000030517578125 165.6999969482421875 166.100006103515625 166.9000091552734375 168.5 168.8000030517578125 168.4000091552734375 167.1999969482421875 165.600006103515625 163.8000030517578125 161.6999969482421875 159.1999969482421875 160.100006103515625 160.4000091552734375 158.9000091552734375 158.4000091552734375 157.4000091552734375 157.100006103515625 156.9000091552734375 155.8000030517578125 155.4000091552734375 155.3000030517578125 154.600006103515625 154.4000091552734375 154 153 151 148 147.5 149.9000091552734375 150.1999969482421875 150.6999969482421875 149.100006103515625 142.100006103515625 139.4000091552734375 141.100006103515625 140 139.9000091552734375 138.9000091552734375 139.3000030517578125 144.8000030517578125 154.9000091552734375 156.5 154.6999969482421875 152.600006103515625 150.5 149.4000091552734375 147.6999969482421875 146.3000030517578125 145.600006103515625 145 145.100006103515625 145.3000030517578125 146.6999969482421875 147.100006103515625 147.5 146.9000091552734375 147.3000030517578125 147.600006103515625 148 147.8000030517578125 144.9000091552734375 139.3000030517578125 143.4000091552734375 124.3000030517578125 139.6999969482421875 133.8000030517578125 131.3000030517578125 113.40000152587890625 112.8000030517578125 112.40000152587890625 112.09999847412109375 113.09999847412109375 111.8000030517578125 121.20000457763671875 118.90000152587890625 119.8000030517578125 120 116.09999847412109375 118.09999847412109375 125.09999847412109375 125.8000030517578125 126.3000030517578125 127.59999847412109375 125.09999847412109375 109.70000457763671875 105.40000152587890625 115.5 113.5 108.20000457763671875 115 110.90000152587890625 114.3000030517578125 111 106.09999847412109375 98.09999847412109375 92.8000030517578125 91.8000030517578125 92 91.09999847412109375 92.5 93 98.3000030517578125 115.70000457763671875 117.3000030517578125 120.20000457763671875 121.09999847412109375 119.8000030517578125 118.59999847412109375 119.3000030517578125 129.4000091552734375 135.3000030517578125 138.5 139.8000030517578125 140.600006103515625 140.100006103515625 138.9000091552734375 136.4000091552734375 137.1999969482421875 138.4000091552734375 143.3000030517578125 143.8000030517578125 141.600006103515625 137.9000091552734375 134.8000030517578125 135
153.9000091552734375 154 161.6999969482421875 163 164.9000091552734375 166.600006103515625 168 169.1999969482421875 169.1999969482421875 169.100006103515625 170.600006103515625 170.8000030517578125 170.100006103515625 169.1999969482421875 167.8000030517578125 164.5 164.9000091552734375 166.1999969482421875 166.600006103515625 166.100006103515625 165.1999969482421875 164.5 164.1999969482421875 163.8000030517578125 162.8000030517578125 161.8000030517578125 160.4000091552734375 159.1999969482421875 157.600006103515625 156.100006103515625 154.1999969482421875 152.6999969482421875 150.9000091552734375 148.9000091552734375 152.8000030517578125 154.5 155.4000091552734375 156.1999969482421875 155.6999969482421875 157.100006103515625 159.9000091552734375 162.3000030517578125 163.8000030517578125 165.100006103515625 166.1999969482421875 167.3000030517578125 168.5 169.4000091552734375 170 170.100006103515625 169.1999969482421875 168.3000030517578125 166 163.3000030517578125 162.9000091552734375 164.3000030517578125 163.9000091552734375 162.5 161.4000091552734375 160.9000091552734375 160 159.3000030517578125 158.4000091552734375 155.8000030517578125 155.100006103515625 154.9000091552734375 153.8000030517578125 152.4000091552734375 150.3000030517578125 149.4000091552734375 149 150.100006103515625 151.1999969482421875 150.9000091552734375 151.4000091552734375 152.1999969482421875 151.3000030517578125 141.600006103515625 140.1999969482421875 140.4000091552734375 140.100006103515625 141.4000091552734375 142.9000091552734375 139.3000030517578125 139.4000091552734375 141.9000091552734375 152.5 157.1999969482421875 156.8000030517578125 154 152.1999969482421875 150.8000030517578125 149 147.9000091552734375 146.6999969482421875 146.3000030517578125 146.100006103515625 147 147.5 147.9000091552734375 147.6999969482421875 147.6999969482421875 148.5 148.9000091552734375 147.8000030517578125 146.100006103515625 120.59999847412109375 160.6999969482421875 155.4000091552734375 148.9000091552734375 141.600006103515625 136.4000091552734375 123 110.8000030517578125 110.90000152587890625 109 109.59999847412109375 109.90000152587890625 109.90000152587890625 115 116.59999847412109375 114.20000457763671875 112.5 108.8000030517578125 108.8000030517578125 113.59999847412109375 112.20000457763671875 111.59999847412109375 116.90000152587890625 105.59999847412109375 103.5 105.40000152587890625 105.09999847412109375 100.40000152587890625 105.40000152587890625 103 94.40000152587890625 94.8000030517578125 93.90000152587890625 93.40000152587890625 92.8000030517578125 93.20000457763671875 91.59999847412109375 101.5 118.20000457763671875 112 102.5 102.09999847412109375 99.70000457763671875 102.3000030517578125 103.5 104.59999847412109375 109.8000030517578125 120.3000030517578125 121.40000152587890625 129.6999969482421875 134.9000091552734375 138.4000091552734375 139.1999969482421875 139.6999969482421875 137.100006103515625 134.3000030517578125 134.9000091552734375 137.6999969482421875 142.5 142.100006103515625 143.3000030517578125 141.3000030517578125 141.6999969482421875 141.100006103515625
159.600006103515625 158 164.100006103515625 165.9000091552734375 167.8000030517578125 169.100006103515625 170.600006103515625 171.600006103515625 172.3000030517578125 172.8000030517578125 173.100006103515625 173.1999969482421875 173 171.9000091552734375 171.1999969482421875 168.600006103515625 164.5 168 168.3000030517578125 167.4000091552734375 167.3000030517578125 166.600006103515625 165.3000030517578125 164.5 163.600006103515625 162 160.600006103515625 158.600006103515625 156.3000030517578125 153.8000030517578125 151.6999969482421875 150.600006103515625 149.6999969482421875 149.6999969482421875 150.100006103515625 151.6999969482421875 155.4000091552734375 157.100006103515625 157 158 161.1999969482421875 162.6999969482421875 164.1999969482421875 166 167 168.6999969482421875 169.9000091552734375 170.8000030517578125 171.6999969482421875 171.3000030517578125 170.1999969482421875 168.1999969482421875 166.1999969482421875 164.4000091552734375 166.3000030517578125 166.100006103515625 165.3000030517578125 163.8000030517578125 163 161.9000091552734375 160.600006103515625 158.600006103515625 157.4000091552734375 156.3000030517578125 155.1999969482421875 153.600006103515625 152.9000091552734375 153.4000091552734375 153.5 153.4000091552734375 152 150.8000030517578125 151.8000030517578125 152.4000091552734375 152.100006103515625 152.600006103515625 152.4000091552734375 145.100006103515625 143.3000030517578125 141 141 142.8000030517578125 151.1999969482421875 149.3000030517578125 140.6999969482421875 139.9000091552734375 141.6999969482421875 148.9000091552734375 156.8000030517578125 155.9000091552734375 154.9000091552734375 153.1999969482421875 152 150.8000030517578125 149.100006103515625 148.3000030517578125 146.8000030517578125 147.5 148.100006103515625 148.600006103515625 148.5 148.6999969482421875 149.600006103515625 150.3000030517578125 149.600006103515625 147.9000091552734375 145 129.600006103515625 165 156.5 150 146.1999969482421875 135.3000030517578125 113.40000152587890625 110 107.3000030517578125 107.90000152587890625 106.70000457763671875 107.59999847412109375 104.8000030517578125 109.70000457763671875 110.90000152587890625 109.20000457763671875 108.3000030517578125 102.90000152587890625 103.8000030517578125 101.09999847412109375 100.20000457763671875 102.40000152587890625 101.40000152587890625 100.59999847412109375 96.59999847412109375 96.09999847412109375 96.40000152587890625 95.40000152587890625 94.70000457763671875 95.8000030517578125 94 93.8000030517578125 93.3000030517578125 93.09999847412109375 95.59999847412109375 110 115 112.40000152587890625 124.20000457763671875 127.70000457763671875 131.100006103515625 131.8000030517578125 131.8000030517578125 131.5 117.3000030517578125 116.40000152587890625 108.70000457763671875 109.5 115 129.600006103515625 132.6999969482421875 134.3000030517578125 135.3000030517578125 136 134 136.1999969482421875 138.1999969482421875 140 140.6999969482421875 142.100006103515625 143.3000030517578125 146.1999969482421875 145.5
160.6999969482421875 158 167.5 169.1999969482421875 171 172.4000091552734375 173.600006103515625 174.4000091552734375 175.5 176.600006103515625 176.3000030517578125 176.5 175.9000091552734375 176.1999969482421875 175.6999969482421875 172.8000030517578125 167.4000091552734375 170.6999969482421875 170.4000091552734375 169.3000030517578125 168 166.5 164.6999969482421875 163.1999969482421875 161.9000091552734375 160.1999969482421875 159 156.3000030517578125 153.9000091552734375 152.600006103515625 151.600006103515625 150.9000091552734375 151.100006103515625 151.8000030517578125 151 151.600006103515625 152.9000091552734375 154.600006103515625 158.1999969482421875 159.9000091552734375 162.5 163 165.1999969482421875 166.6999969482421875 168.100006103515625 169.6999969482421875 170.6999969482421875 171.6999969482421875 172.5 171.600006103515625 169.8000030517578125 168.9000091552734375 167.100006103515625 168.3000030517578125 167.600006103515625 167.1999969482421875 165.9000091552734375 164.5 163.5 161.3000030517578125 160.6999969482421875 159.600006103515625 157.600006103515625 158.100006103515625 158.5 160.6999969482421875 159.6999969482421875 159.4000091552734375 158.4000091552734375 157 155.100006103515625 153.3000030517578125 153.600006103515625 153.6999969482421875 154 154.100006103515625 153.1999969482421875 146.3000030517578125 143.8000030517578125 142.4000091552734375 142.4000091552734375 146.5 153.1999969482421875 150.4000091552734375 150.100006103515625 144.4000091552734375 141.600006103515625 141.100006103515625 145.600006103515625 153.8000030517578125 156.5 157 155.3000030517578125 153.8000030517578125 152.5 151.4000091552734375 151 150.100006103515625 149 149.3000030517578125 150.100006103515625 151 151.4000091552734375 152.100006103515625 151.3000030517578125 149.6999969482421875 146.5 132.6999969482421875 135.9000091552734375 163.600006103515625 155.3000030517578125 154.3000030517578125 145.8000030517578125 136.6999969482421875 115.09999847412109375 110.40000152587890625 108.09999847412109375 105.8000030517578125 105.90000152587890625 104.20000457763671875 103.3000030517578125 103.90000152587890625 102 100.3000030517578125 99.90000152587890625 100 99.20000457763671875 98.20000457763671875 96.90000152587890625 96.3000030517578125 95.70000457763671875 95.8000030517578125 95.40000152587890625 95.09999847412109375 95.70000457763671875 94.5 94.5 94.40000152587890625 96.40000152587890625 104.5 116.3000030517578125 124.5 111.5 118.59999847412109375 127.59999847412109375 129.1999969482421875 137.100006103515625 139.9000091552734375 143.3000030517578125 140.8000030517578125 135.8000030517578125 132 133.9000091552734375 132.5 118 111.90000152587890625 115.59999847412109375 127.3000030517578125 122.5 125.3000030517578125 128.8000030517578125 130.5 130.600006103515625 135.5 135.9000091552734375 140.6999969482421875 140.5 142.3000030517578125 141.4000091552734375 144.5
162.5 161.100006103515625 170.8000030517578125 173.600006103515625 173.4000091552734375 174.9000091552734375 176.600006103515625 177.3000030517578125 179.1999969482421875 179.100006103515625 178.600006103515625 179.5 178.8000030517578125 179.8000030517578125 179.100006103515625 175.600006103515625 171 172.600006103515625 171.6999969482421875 169.8000030517578125 167.9000091552734375 166.5 164.6999969482421875 162.9000091552734375 161.1999969482421875 158.8000030517578125 156.600006103515625 155.4000091552734375 154.600006103515625 154.9000091552734375 152.4000091552734375 152.1999969482421875 155.1999969482421875 154.100006103515625 153.3000030517578125 154 154.5 156.1999969482421875 159.1999969482421875 161 163.1999969482421875 163.9000091552734375 165.5 167.600006103515625 169.3000030517578125 171.1999969482421875 172.100006103515625 173.1999969482421875 173.3000030517578125 172.4000091552734375 170.4000091552734375 169.100006103515625 168.3000030517578125 169.9000091552734375 168.9000091552734375 168.100006103515625 166.600006103515625 165.1999969482421875 164 163.3000030517578125 161.5 161 160.9000091552734375 161.9000091552734375 162.4000091552734375 164.3000030517578125 165.6999969482421875 169.5 148.4000091552734375 160.600006103515625 157 155.1999969482421875 153.8000030517578125 153.8000030517578125 154.6999969482421875 155 155.3000030517578125 146.9000091552734375 144.3000030517578125 143.5 142.4000091552734375 153.3000030517578125 151.4000091552734375 152.1999969482421875 152.100006103515625 149.4000091552734375 145.100006103515625 142.9000091552734375 141.6999969482421875 142.1999969482421875 143.9000091552734375 147.9000091552734375 155.3000030517578125 156.1999969482421875 155.9000091552734375 154.600006103515625 153.1999969482421875 152.100006103515625 150.6999969482421875 149.6999969482421875 150.5 151.100006103515625 151.8000030517578125 152.3000030517578125 152.5 150.9000091552734375 148.5 133.5 123.70000457763671875 160.1999969482421875 159.1999969482421875 152.8000030517578125 148.600006103515625 140.8000030517578125 128.100006103515625 111.8000030517578125 109 107.20000457763671875 103.5 104.20000457763671875 102.8000030517578125 101.90000152587890625 100.90000152587890625 105.8000030517578125 100 99.3000030517578125 105.59999847412109375 102.20000457763671875 99.59999847412109375 98.8000030517578125 99.09999847412109375 99.09999847412109375 98 96.90000152587890625 97.3000030517578125 96 98.3000030517578125 117.70000457763671875 110.3000030517578125 110.20000457763671875 123.40000152587890625 131.4000091552734375 113.5 122.59999847412109375 137.1999969482421875 140.8000030517578125 143.4000091552734375 145.4000091552734375 144.3000030517578125 141.100006103515625 138.3000030517578125 139.1999969482421875 140.3000030517578125 137.3000030517578125 129 124.09999847412109375 114.09999847412109375 126.5 135.5 134.5 134.3000030517578125 133.600006103515625 135.100006103515625 134.9000091552734375 136.5 139.3000030517578125 142.3000030517578125 141 140.6999969482421875 143.1999969482421875
